118750.0 138500.0 8000.0
119250.0 138500.0 8000.0
119750.0 138500.0 8000.0
120250.0 138500.0 8000.0
120750.0 138500.0 8000.0
97200.0 110800.0 10000.0
145800.0 166200.0 6666.66666667
146400.0 166200.0 6666.66666667
147000.0 166200.0 6666.66666667
147600.0 166200.0 6666.66666667
148200.0 166200.0 6666.66666667
124250.0 138500.0 8000.0
124750.0 138500.0 8000.0
125250.0 138500.0 8000.0
125750.0 138500.0 8000.0
126250.0 138500.0 8000.0
126750.0 138500.0 8000.0
127250.0 138500.0 8000.0
127750.0 138500.0 8000.0
128250.0 138500.0 8000.0
128750.0 138500.0 8000.0
129250.0 138500.0 8000.0
129750.0 138500.0 8000.0
130250.0 138500.0 8000.0
130750.0 138500.0 8000.0
131250.0 138500.0 8000.0
131750.0 138500.0 8000.0
132250.0 138500.0 8000.0
132750.0 138500.0 8000.0
133250.0 138500.0 8000.0
133750.0 138500.0 8000.0
134250.0 138500.0 8000.0
134750.0 138500.0 8000.0
135250.0 138500.0 8000.0
135750.0 138500.0 8000.0
136250.0 138500.0 8000.0
136750.0 138500.0 8000.0
137250.0 138500.0 8000.0
137750.0 138500.0 8000.0
138250.0 138500.0 8000.0
138750.0 138500.0 8000.0
139250.0 138500.0 8000.0
139750.0 138500.0 8000.0
140250.0 138500.0 8000.0
140750.0 138500.0 8000.0
141250.0 138500.0 8000.0
141750.0 138500.0 8000.0
142250.0 138500.0 8000.0
171000.0 166200.0 6666.66666667
171600.0 166200.0 6666.66666667
172200.0 166200.0 6666.66666667
172800.0 166200.0 6666.66666667
201950.0 193900.0 5714.28571429
202650.0 193900.0 5714.28571429
203350.0 193900.0 5714.28571429
204050.0 193900.0 5714.28571429
204750.0 193900.0 5714.28571429
205450.0 193900.0 5714.28571429
206150.0 193900.0 5714.28571429
206850.0 193900.0 5714.28571429
207550.0 193900.0 5714.28571429
208250.0 193900.0 5714.28571429
208950.0 193900.0 5714.28571429
209650.0 193900.0 5714.28571429
210350.0 193900.0 5714.28571429
211050.0 193900.0 5714.28571429
211750.0 193900.0 5714.28571429
3074400.0 3490200.0 317.46031746
3735000.0 4598200.0 240.963855422
3751600.0 4598200.0 240.963855422
184200.0 166200.0 6666.66666667
215250.0 193900.0 5714.28571429
185400.0 166200.0 6666.66666667
216650.0 193900.0 5714.28571429
-748650.0 -637100.0 -1739.13043478
218050.0 193900.0 5714.28571429
218750.0 193900.0 5714.28571429
219450.0 193900.0 5714.28571429
220150.0 193900.0 5714.28571429
220850.0 193900.0 5714.28571429
221550.0 193900.0 5714.28571429
222250.0 193900.0 5714.28571429
222950.0 193900.0 5714.28571429
223650.0 193900.0 5714.28571429
224350.0 193900.0 5714.28571429
225050.0 193900.0 5714.28571429
225750.0 193900.0 5714.28571429
97650.0 83100.0 0.0
259200.0 221600.0 5000.0
260000.0 221600.0 5000.0
260800.0 221600.0 5000.0
261600.0 221600.0 5000.0
262400.0 221600.0 5000.0
263200.0 221600.0 5000.0
264000.0 221600.0 5000.0
264800.0 221600.0 5000.0
265600.0 221600.0 5000.0
266400.0 221600.0 5000.0
267200.0 221600.0 5000.0
268000.0 221600.0 5000.0
268800.0 221600.0 5000.0
269600.0 221600.0 5000.0
270400.0 221600.0 5000.0
271200.0 221600.0 5000.0
272000.0 221600.0 5000.0
272800.0 221600.0 5000.0
273600.0 221600.0 5000.0
274400.0 221600.0 5000.0
275200.0 221600.0 5000.0
276000.0 221600.0 5000.0
276800.0 221600.0 5000.0
277600.0 221600.0 5000.0
278400.0 221600.0 5000.0
279200.0 221600.0 5000.0
280000.0 221600.0 5000.0
280800.0 221600.0 5000.0
281600.0 221600.0 5000.0
282400.0 221600.0 5000.0
318150.0 249300.0 4444.44444444
213600.0 166200.0 6666.66666667
214200.0 166200.0 6666.66666667
214800.0 166200.0 6666.66666667
215400.0 166200.0 6666.66666667
216000.0 166200.0 6666.66666667
216600.0 166200.0 6666.66666667
217200.0 166200.0 6666.66666667
217800.0 166200.0 6666.66666667
218400.0 166200.0 6666.66666667
219000.0 166200.0 6666.66666667
219600.0 166200.0 6666.66666667
220200.0 166200.0 6666.66666667
220800.0 166200.0 6666.66666667
221400.0 166200.0 6666.66666667
222000.0 166200.0 6666.66666667
222600.0 166200.0 6666.66666667
223200.0 166200.0 6666.66666667
0.0 0.0 0.0
0.0 0.0 0.0
0.0 0.0 0.0
0.0 0.0 0.0
0.0 0.0 0.0
0.0 0.0 0.0
0.0 0.0 0.0
0.0 0.0 0.0
-2668050.0 -6421800.0 -173.16017316
-2691150.0 -6421800.0 -173.16017316
-2714250.0 -6421800.0 -173.16017316
-2737350.0 -6421800.0 -173.16017316
-2760450.0 -6421800.0 -173.16017316
-2783550.0 -6421800.0 -173.16017316
-6053400.0 -9507600.0 -116.959064327
-6087600.0 -9507600.0 -116.959064327
2750.0 139000.0 8000.0
-547200.0 -2668800.0 -416.666666667
3750.0 139000.0 8000.0
4250.0 139000.0 8000.0
4000.0 111200.0 10000.0
5250.0 139000.0 8000.0
5750.0 139000.0 8000.0
6250.0 139000.0 8000.0
6750.0 139000.0 8000.0
7250.0 139000.0 8000.0
7750.0 139000.0 8000.0
8250.0 139000.0 8000.0
8750.0 139000.0 8000.0
10800.0 166800.0 6666.66666667
11400.0 166800.0 6666.66666667
8400.0 111200.0 10000.0
12600.0 166800.0 6666.66666667
13200.0 166800.0 6666.66666667
13800.0 166800.0 6666.66666667
12250.0 139000.0 8000.0
12750.0 139000.0 8000.0
13250.0 139000.0 8000.0
13750.0 139000.0 8000.0
14250.0 139000.0 8000.0
14750.0 139000.0 8000.0
15250.0 139000.0 8000.0
15750.0 139000.0 8000.0
16250.0 139000.0 8000.0
16750.0 139000.0 8000.0
17250.0 139000.0 8000.0
17750.0 139000.0 8000.0
18250.0 139000.0 8000.0
18750.0 139000.0 8000.0
19250.0 139000.0 8000.0
19750.0 139000.0 8000.0
20250.0 139000.0 8000.0
20750.0 139000.0 8000.0
21250.0 139000.0 8000.0
21750.0 139000.0 8000.0
22250.0 139000.0 8000.0
22750.0 139000.0 8000.0
23250.0 139000.0 8000.0
23750.0 139000.0 8000.0
24250.0 139000.0 8000.0
24750.0 139000.0 8000.0
25250.0 139000.0 8000.0
25750.0 139000.0 8000.0
26250.0 139000.0 8000.0
26750.0 139000.0 8000.0
27250.0 139000.0 8000.0
27750.0 139000.0 8000.0
28250.0 139000.0 8000.0
28750.0 139000.0 8000.0
29250.0 139000.0 8000.0
29750.0 139000.0 8000.0
30250.0 139000.0 8000.0
-3885000.0 -6171600.0 -180.18018018
-3907200.0 -6171600.0 -180.18018018
-3929400.0 -6171600.0 -180.18018018
-3951600.0 -6171600.0 -180.18018018
-3973800.0 -6171600.0 -180.18018018
-3996000.0 -6171600.0 -180.18018018
-4018200.0 -6171600.0 -180.18018018
-4011150.0 -6143800.0 -180.995475113
-240800.0 -778400.0 -1428.57142857
-243600.0 -778400.0 -1428.57142857
-246400.0 -778400.0 -1428.57142857
-249200.0 -778400.0 -1428.57142857
-252000.0 -778400.0 -1428.57142857
-254800.0 -778400.0 -1428.57142857
-257600.0 -778400.0 -1428.57142857
-260400.0 -778400.0 -1428.57142857
-263200.0 -778400.0 -1428.57142857
-266000.0 -778400.0 -1428.57142857
-268800.0 -778400.0 -1428.57142857
-271600.0 -778400.0 -1428.57142857
-274400.0 -778400.0 -1428.57142857
94800.0 333600.0 3333.33333333
96000.0 333600.0 3333.33333333
97200.0 333600.0 3333.33333333
98400.0 333600.0 3333.33333333
99600.0 333600.0 3333.33333333
100800.0 333600.0 3333.33333333
102000.0 333600.0 3333.33333333
103200.0 333600.0 3333.33333333
104400.0 333600.0 3333.33333333
105600.0 333600.0 3333.33333333
106800.0 333600.0 3333.33333333
108000.0 333600.0 3333.33333333
109200.0 333600.0 3333.33333333
110400.0 333600.0 3333.33333333
111600.0 333600.0 3333.33333333
112800.0 333600.0 3333.33333333
114000.0 333600.0 3333.33333333
115200.0 333600.0 3333.33333333
116400.0 333600.0 3333.33333333
117600.0 333600.0 3333.33333333
118800.0 333600.0 3333.33333333
120000.0 333600.0 3333.33333333
121200.0 333600.0 3333.33333333
122400.0 333600.0 3333.33333333
113850.0 305800.0 3636.36363636
114950.0 305800.0 3636.36363636
116050.0 305800.0 3636.36363636
117150.0 305800.0 3636.36363636
118250.0 305800.0 3636.36363636
119350.0 305800.0 3636.36363636
120450.0 305800.0 3636.36363636
121550.0 305800.0 3636.36363636
122650.0 305800.0 3636.36363636
123750.0 305800.0 3636.36363636
124850.0 305800.0 3636.36363636
125950.0 305800.0 3636.36363636
127050.0 305800.0 3636.36363636
128150.0 305800.0 3636.36363636
497250.0 1417800.0 784.31372549
502350.0 1417800.0 784.31372549
131450.0 305800.0 3636.36363636
132550.0 305800.0 3636.36363636
133650.0 305800.0 3636.36363636
134750.0 305800.0 3636.36363636
301600.0 722800.0 1538.46153846
136950.0 305800.0 3636.36363636
138050.0 305800.0 3636.36363636
139150.0 305800.0 3636.36363636
140250.0 305800.0 3636.36363636
141350.0 305800.0 3636.36363636
142450.0 305800.0 3636.36363636
143550.0 305800.0 3636.36363636
144650.0 305800.0 3636.36363636
145750.0 305800.0 3636.36363636
146850.0 305800.0 3636.36363636
147950.0 305800.0 3636.36363636
149050.0 305800.0 3636.36363636
150150.0 305800.0 3636.36363636
151250.0 305800.0 3636.36363636
152350.0 305800.0 3636.36363636
153450.0 305800.0 3636.36363636
154550.0 305800.0 3636.36363636
155650.0 305800.0 3636.36363636
156750.0 305800.0 3636.36363636
157850.0 305800.0 3636.36363636
158950.0 305800.0 3636.36363636
160050.0 305800.0 3636.36363636
161150.0 305800.0 3636.36363636
162250.0 305800.0 3636.36363636
163350.0 305800.0 3636.36363636
164450.0 305800.0 3636.36363636
165550.0 305800.0 3636.36363636
166650.0 305800.0 3636.36363636
167750.0 305800.0 3636.36363636
168850.0 305800.0 3636.36363636
169950.0 305800.0 3636.36363636
171050.0 305800.0 3636.36363636
172150.0 305800.0 3636.36363636
173250.0 305800.0 3636.36363636
174350.0 305800.0 3636.36363636
175450.0 305800.0 3636.36363636
176550.0 305800.0 3636.36363636
177650.0 305800.0 3636.36363636
178750.0 305800.0 3636.36363636
179850.0 305800.0 3636.36363636
180950.0 305800.0 3636.36363636
182050.0 305800.0 3636.36363636
183150.0 305800.0 3636.36363636
184250.0 305800.0 3636.36363636
185350.0 305800.0 3636.36363636
186450.0 305800.0 3636.36363636
187550.0 305800.0 3636.36363636
188650.0 305800.0 3636.36363636
189750.0 305800.0 3636.36363636
190850.0 305800.0 3636.36363636
191950.0 305800.0 3636.36363636
193050.0 305800.0 3636.36363636
194150.0 305800.0 3636.36363636
195250.0 305800.0 3636.36363636
196350.0 305800.0 3636.36363636
197450.0 305800.0 3636.36363636
198550.0 305800.0 3636.36363636
199650.0 305800.0 3636.36363636
200750.0 305800.0 3636.36363636
201850.0 305800.0 3636.36363636
202950.0 305800.0 3636.36363636
204050.0 305800.0 3636.36363636
205150.0 305800.0 3636.36363636
206250.0 305800.0 3636.36363636
207350.0 305800.0 3636.36363636
208450.0 305800.0 3636.36363636
191000.0 278000.0 4000.0
229200.0 333600.0 3333.33333333
230400.0 333600.0 3333.33333333
231600.0 333600.0 3333.33333333
232800.0 333600.0 3333.33333333
234000.0 333600.0 3333.33333333
235200.0 333600.0 3333.33333333
236400.0 333600.0 3333.33333333
237600.0 333600.0 3333.33333333
238800.0 333600.0 3333.33333333
220550.0 305800.0 3636.36363636
221650.0 305800.0 3636.36363636
222750.0 305800.0 3636.36363636
223850.0 305800.0 3636.36363636
224950.0 305800.0 3636.36363636
226050.0 305800.0 3636.36363636
227150.0 305800.0 3636.36363636
228250.0 305800.0 3636.36363636
229350.0 305800.0 3636.36363636
230450.0 305800.0 3636.36363636
231550.0 305800.0 3636.36363636
232650.0 305800.0 3636.36363636
233750.0 305800.0 3636.36363636
234850.0 305800.0 3636.36363636
108750.0 139000.0 8000.0
109250.0 139000.0 8000.0
109750.0 139000.0 8000.0
110250.0 139000.0 8000.0
110750.0 139000.0 8000.0
111250.0 139000.0 8000.0
111750.0 139000.0 8000.0
112250.0 139000.0 8000.0
112750.0 139000.0 8000.0
113250.0 139000.0 8000.0
113750.0 139000.0 8000.0
114250.0 139000.0 8000.0
114750.0 139000.0 8000.0
115250.0 139000.0 8000.0
115750.0 139000.0 8000.0
116250.0 139000.0 8000.0
116750.0 139000.0 8000.0
117250.0 139000.0 8000.0
117750.0 139000.0 8000.0
118250.0 139000.0 8000.0
118750.0 139000.0 8000.0
119250.0 139000.0 8000.0
119750.0 139000.0 8000.0
144000.0 166800.0 6666.66666667
144600.0 166800.0 6666.66666667
97200.0 111200.0 10000.0
145800.0 166800.0 6666.66666667
146400.0 166800.0 6666.66666667
147000.0 166800.0 6666.66666667
147600.0 166800.0 6666.66666667
148200.0 166800.0 6666.66666667
99600.0 111200.0 10000.0
100000.0 111200.0 10000.0
125250.0 139000.0 8000.0
125750.0 139000.0 8000.0
126250.0 139000.0 8000.0
126750.0 139000.0 8000.0
127250.0 139000.0 8000.0
127750.0 139000.0 8000.0
128250.0 139000.0 8000.0
128750.0 139000.0 8000.0
129250.0 139000.0 8000.0
129750.0 139000.0 8000.0
130250.0 139000.0 8000.0
130750.0 139000.0 8000.0
131250.0 139000.0 8000.0
131750.0 139000.0 8000.0
132250.0 139000.0 8000.0
132750.0 139000.0 8000.0
133250.0 139000.0 8000.0
133750.0 139000.0 8000.0
134250.0 139000.0 8000.0
134750.0 139000.0 8000.0
135250.0 139000.0 8000.0
135750.0 139000.0 8000.0
136250.0 139000.0 8000.0
136750.0 139000.0 8000.0
137250.0 139000.0 8000.0
137750.0 139000.0 8000.0
138250.0 139000.0 8000.0
138750.0 139000.0 8000.0
139250.0 139000.0 8000.0
139750.0 139000.0 8000.0
140250.0 139000.0 8000.0
140750.0 139000.0 8000.0
141250.0 139000.0 8000.0
141750.0 139000.0 8000.0
142250.0 139000.0 8000.0
-1873250.0 -1640200.0 -677.966101695
171600.0 166800.0 6666.66666667
172200.0 166800.0 6666.66666667
172800.0 166800.0 6666.66666667
201950.0 194600.0 5714.28571429
202650.0 194600.0 5714.28571429
203350.0 194600.0 5714.28571429
204050.0 194600.0 5714.28571429
204750.0 194600.0 5714.28571429
205450.0 194600.0 5714.28571429
206150.0 194600.0 5714.28571429
206850.0 194600.0 5714.28571429
207550.0 194600.0 5714.28571429
208250.0 194600.0 5714.28571429
208950.0 194600.0 5714.28571429
209650.0 194600.0 5714.28571429
210350.0 194600.0 5714.28571429
211050.0 194600.0 5714.28571429
211750.0 194600.0 5714.28571429
3074400.0 3502800.0 317.46031746
3735000.0 4614800.0 240.963855422
3751600.0 4614800.0 240.963855422
184200.0 166800.0 6666.66666667
215250.0 194600.0 5714.28571429
185400.0 166800.0 6666.66666667
216650.0 194600.0 5714.28571429
-748650.0 -639400.0 -1739.13043478
218050.0 194600.0 5714.28571429
218750.0 194600.0 5714.28571429
219450.0 194600.0 5714.28571429
220150.0 194600.0 5714.28571429
220850.0 194600.0 5714.28571429
221550.0 194600.0 5714.28571429
222250.0 194600.0 5714.28571429
222950.0 194600.0 5714.28571429
223650.0 194600.0 5714.28571429
224350.0 194600.0 5714.28571429
225050.0 194600.0 5714.28571429
225750.0 194600.0 5714.28571429
97650.0 83400.0 0.0
259200.0 222400.0 5000.0
260000.0 222400.0 5000.0
260800.0 222400.0 5000.0
261600.0 222400.0 5000.0
262400.0 222400.0 5000.0
263200.0 222400.0 5000.0
264000.0 222400.0 5000.0
264800.0 222400.0 5000.0
265600.0 222400.0 5000.0
266400.0 222400.0 5000.0
267200.0 222400.0 5000.0
268000.0 222400.0 5000.0
268800.0 222400.0 5000.0
269600.0 222400.0 5000.0
270400.0 222400.0 5000.0
271200.0 222400.0 5000.0
272000.0 222400.0 5000.0
272800.0 222400.0 5000.0
273600.0 222400.0 5000.0
274400.0 222400.0 5000.0
275200.0 222400.0 5000.0
276000.0 222400.0 5000.0
276800.0 222400.0 5000.0
277600.0 222400.0 5000.0
278400.0 222400.0 5000.0
279200.0 222400.0 5000.0
280000.0 222400.0 5000.0
280800.0 222400.0 5000.0
281600.0 222400.0 5000.0
282400.0 222400.0 5000.0
318150.0 250200.0 4444.44444444
213600.0 166800.0 6666.66666667
214200.0 166800.0 6666.66666667
214800.0 166800.0 6666.66666667
215400.0 166800.0 6666.66666667
216000.0 166800.0 6666.66666667
216600.0 166800.0 6666.66666667
217200.0 166800.0 6666.66666667
217800.0 166800.0 6666.66666667
218400.0 166800.0 6666.66666667
219000.0 166800.0 6666.66666667
219600.0 166800.0 6666.66666667
220200.0 166800.0 6666.66666667
220800.0 166800.0 6666.66666667
221400.0 166800.0 6666.66666667
222000.0 166800.0 6666.66666667
222600.0 166800.0 6666.66666667
223200.0 166800.0 6666.66666667
0.0 0.0 0.0
0.0 0.0 0.0
0.0 0.0 0.0
0.0 0.0 0.0
0.0 0.0 0.0
0.0 0.0 0.0
0.0 0.0 0.0
0.0 0.0 0.0
0.0 0.0 0.0
0.0 0.0 0.0
0.0 0.0 0.0
-2737350.0 -6444900.0 -173.16017316
-2760450.0 -6444900.0 -173.16017316
-2783550.0 -6444900.0 -173.16017316
-6053400.0 -9541800.0 -116.959064327
-6087600.0 -9541800.0 -116.959064327
-681250.0 -3041100.0 -366.972477064
-547200.0 -2678400.0 -416.666666667
-556800.0 -2678400.0 -416.666666667
2850.0 83700.0 0.0
4000.0 111600.0 10000.0
5250.0 139500.0 8000.0
5750.0 139500.0 8000.0
6250.0 139500.0 8000.0
6750.0 139500.0 8000.0
7250.0 139500.0 8000.0
7750.0 139500.0 8000.0
8250.0 139500.0 8000.0
8750.0 139500.0 8000.0
10800.0 167400.0 6666.66666667
11400.0 167400.0 6666.66666667
8400.0 111600.0 10000.0
8800.0 111600.0 10000.0
9200.0 111600.0 10000.0
13800.0 167400.0 6666.66666667
12250.0 139500.0 8000.0
12750.0 139500.0 8000.0
13250.0 139500.0 8000.0
13750.0 139500.0 8000.0
14250.0 139500.0 8000.0
14750.0 139500.0 8000.0
15250.0 139500.0 8000.0
15750.0 139500.0 8000.0
16250.0 139500.0 8000.0
16750.0 139500.0 8000.0
17250.0 139500.0 8000.0
17750.0 139500.0 8000.0
18250.0 139500.0 8000.0
18750.0 139500.0 8000.0
19250.0 139500.0 8000.0
19750.0 139500.0 8000.0
20250.0 139500.0 8000.0
20750.0 139500.0 8000.0
21250.0 139500.0 8000.0
21750.0 139500.0 8000.0
22250.0 139500.0 8000.0
22750.0 139500.0 8000.0
23250.0 139500.0 8000.0
23750.0 139500.0 8000.0
24250.0 139500.0 8000.0
24750.0 139500.0 8000.0
25250.0 139500.0 8000.0
25750.0 139500.0 8000.0
26250.0 139500.0 8000.0
26750.0 139500.0 8000.0
27250.0 139500.0 8000.0
27750.0 139500.0 8000.0
28250.0 139500.0 8000.0
28750.0 139500.0 8000.0
29250.0 139500.0 8000.0
29750.0 139500.0 8000.0
30250.0 139500.0 8000.0
-3885000.0 -6193800.0 -180.18018018
-3907200.0 -6193800.0 -180.18018018
-3929400.0 -6193800.0 -180.18018018
-3951600.0 -6193800.0 -180.18018018
-3973800.0 -6193800.0 -180.18018018
-3996000.0 -6193800.0 -180.18018018
-4018200.0 -6193800.0 -180.18018018
-4011150.0 -6165900.0 -180.995475113
-240800.0 -781200.0 -1428.57142857
-243600.0 -781200.0 -1428.57142857
-246400.0 -781200.0 -1428.57142857
-249200.0 -781200.0 -1428.57142857
-252000.0 -781200.0 -1428.57142857
-254800.0 -781200.0 -1428.57142857
-257600.0 -781200.0 -1428.57142857
-260400.0 -781200.0 -1428.57142857
-263200.0 -781200.0 -1428.57142857
-266000.0 -781200.0 -1428.57142857
-268800.0 -781200.0 -1428.57142857
-271600.0 -781200.0 -1428.57142857
-274400.0 -781200.0 -1428.57142857
94800.0 334800.0 3333.33333333
96000.0 334800.0 3333.33333333
97200.0 334800.0 3333.33333333
98400.0 334800.0 3333.33333333
99600.0 334800.0 3333.33333333
100800.0 334800.0 3333.33333333
102000.0 334800.0 3333.33333333
103200.0 334800.0 3333.33333333
104400.0 334800.0 3333.33333333
105600.0 334800.0 3333.33333333
106800.0 334800.0 3333.33333333
108000.0 334800.0 3333.33333333
109200.0 334800.0 3333.33333333
110400.0 334800.0 3333.33333333
111600.0 334800.0 3333.33333333
112800.0 334800.0 3333.33333333
114000.0 334800.0 3333.33333333
115200.0 334800.0 3333.33333333
116400.0 334800.0 3333.33333333
117600.0 334800.0 3333.33333333
118800.0 334800.0 3333.33333333
120000.0 334800.0 3333.33333333
121200.0 334800.0 3333.33333333
122400.0 334800.0 3333.33333333
113850.0 306900.0 3636.36363636
114950.0 306900.0 3636.36363636
116050.0 306900.0 3636.36363636
117150.0 306900.0 3636.36363636
118250.0 306900.0 3636.36363636
119350.0 306900.0 3636.36363636
120450.0 306900.0 3636.36363636
121550.0 306900.0 3636.36363636
122650.0 306900.0 3636.36363636
123750.0 306900.0 3636.36363636
124850.0 306900.0 3636.36363636
125950.0 306900.0 3636.36363636
127050.0 306900.0 3636.36363636
492150.0 1422900.0 784.31372549
497250.0 1422900.0 784.31372549
502350.0 1422900.0 784.31372549
131450.0 306900.0 3636.36363636
132550.0 306900.0 3636.36363636
133650.0 306900.0 3636.36363636
134750.0 306900.0 3636.36363636
301600.0 725400.0 1538.46153846
136950.0 306900.0 3636.36363636
138050.0 306900.0 3636.36363636
139150.0 306900.0 3636.36363636
140250.0 306900.0 3636.36363636
141350.0 306900.0 3636.36363636
142450.0 306900.0 3636.36363636
143550.0 306900.0 3636.36363636
144650.0 306900.0 3636.36363636
145750.0 306900.0 3636.36363636
146850.0 306900.0 3636.36363636
147950.0 306900.0 3636.36363636
149050.0 306900.0 3636.36363636
150150.0 306900.0 3636.36363636
151250.0 306900.0 3636.36363636
152350.0 306900.0 3636.36363636
153450.0 306900.0 3636.36363636
154550.0 306900.0 3636.36363636
155650.0 306900.0 3636.36363636
156750.0 306900.0 3636.36363636
157850.0 306900.0 3636.36363636
158950.0 306900.0 3636.36363636
160050.0 306900.0 3636.36363636
161150.0 306900.0 3636.36363636
162250.0 306900.0 3636.36363636
163350.0 306900.0 3636.36363636
164450.0 306900.0 3636.36363636
165550.0 306900.0 3636.36363636
166650.0 306900.0 3636.36363636
167750.0 306900.0 3636.36363636
168850.0 306900.0 3636.36363636
169950.0 306900.0 3636.36363636
171050.0 306900.0 3636.36363636
172150.0 306900.0 3636.36363636
173250.0 306900.0 3636.36363636
174350.0 306900.0 3636.36363636
175450.0 306900.0 3636.36363636
176550.0 306900.0 3636.36363636
177650.0 306900.0 3636.36363636
178750.0 306900.0 3636.36363636
179850.0 306900.0 3636.36363636
180950.0 306900.0 3636.36363636
182050.0 306900.0 3636.36363636
183150.0 306900.0 3636.36363636
184250.0 306900.0 3636.36363636
185350.0 306900.0 3636.36363636
186450.0 306900.0 3636.36363636
187550.0 306900.0 3636.36363636
188650.0 306900.0 3636.36363636
189750.0 306900.0 3636.36363636
190850.0 306900.0 3636.36363636
191950.0 306900.0 3636.36363636
193050.0 306900.0 3636.36363636
194150.0 306900.0 3636.36363636
195250.0 306900.0 3636.36363636
196350.0 306900.0 3636.36363636
197450.0 306900.0 3636.36363636
198550.0 306900.0 3636.36363636
199650.0 306900.0 3636.36363636
200750.0 306900.0 3636.36363636
201850.0 306900.0 3636.36363636
202950.0 306900.0 3636.36363636
204050.0 306900.0 3636.36363636
205150.0 306900.0 3636.36363636
206250.0 306900.0 3636.36363636
207350.0 306900.0 3636.36363636
208450.0 306900.0 3636.36363636
209550.0 306900.0 3636.36363636
229200.0 334800.0 3333.33333333
230400.0 334800.0 3333.33333333
231600.0 334800.0 3333.33333333
232800.0 334800.0 3333.33333333
234000.0 334800.0 3333.33333333
235200.0 334800.0 3333.33333333
236400.0 334800.0 3333.33333333
237600.0 334800.0 3333.33333333
238800.0 334800.0 3333.33333333
220550.0 306900.0 3636.36363636
221650.0 306900.0 3636.36363636
222750.0 306900.0 3636.36363636
223850.0 306900.0 3636.36363636
224950.0 306900.0 3636.36363636
226050.0 306900.0 3636.36363636
227150.0 306900.0 3636.36363636
228250.0 306900.0 3636.36363636
229350.0 306900.0 3636.36363636
230450.0 306900.0 3636.36363636
231550.0 306900.0 3636.36363636
232650.0 306900.0 3636.36363636
233750.0 306900.0 3636.36363636
234850.0 306900.0 3636.36363636
108750.0 139500.0 8000.0
109250.0 139500.0 8000.0
109750.0 139500.0 8000.0
110250.0 139500.0 8000.0
110750.0 139500.0 8000.0
111250.0 139500.0 8000.0
111750.0 139500.0 8000.0
112250.0 139500.0 8000.0
112750.0 139500.0 8000.0
113250.0 139500.0 8000.0
113750.0 139500.0 8000.0
114250.0 139500.0 8000.0
114750.0 139500.0 8000.0
115250.0 139500.0 8000.0
115750.0 139500.0 8000.0
116250.0 139500.0 8000.0
116750.0 139500.0 8000.0
117250.0 139500.0 8000.0
117750.0 139500.0 8000.0
118250.0 139500.0 8000.0
118750.0 139500.0 8000.0
119250.0 139500.0 8000.0
119750.0 139500.0 8000.0
144000.0 167400.0 6666.66666667
144600.0 167400.0 6666.66666667
97200.0 111600.0 10000.0
145800.0 167400.0 6666.66666667
146400.0 167400.0 6666.66666667
147000.0 167400.0 6666.66666667
147600.0 167400.0 6666.66666667
148200.0 167400.0 6666.66666667
99600.0 111600.0 10000.0
100000.0 111600.0 10000.0
125250.0 139500.0 8000.0
125750.0 139500.0 8000.0
126250.0 139500.0 8000.0
126750.0 139500.0 8000.0
127250.0 139500.0 8000.0
127750.0 139500.0 8000.0
128250.0 139500.0 8000.0
128750.0 139500.0 8000.0
129250.0 139500.0 8000.0
129750.0 139500.0 8000.0
130250.0 139500.0 8000.0
130750.0 139500.0 8000.0
131250.0 139500.0 8000.0
131750.0 139500.0 8000.0
132250.0 139500.0 8000.0
132750.0 139500.0 8000.0
133250.0 139500.0 8000.0
133750.0 139500.0 8000.0
134250.0 139500.0 8000.0
134750.0 139500.0 8000.0
135250.0 139500.0 8000.0
135750.0 139500.0 8000.0
136250.0 139500.0 8000.0
136750.0 139500.0 8000.0
137250.0 139500.0 8000.0
137750.0 139500.0 8000.0
138250.0 139500.0 8000.0
138750.0 139500.0 8000.0
139250.0 139500.0 8000.0
139750.0 139500.0 8000.0
140250.0 139500.0 8000.0
140750.0 139500.0 8000.0
141250.0 139500.0 8000.0
141750.0 139500.0 8000.0
142250.0 139500.0 8000.0
-1873250.0 -1646100.0 -677.966101695
171600.0 167400.0 6666.66666667
172200.0 167400.0 6666.66666667
172800.0 167400.0 6666.66666667
201950.0 195300.0 5714.28571429
202650.0 195300.0 5714.28571429
203350.0 195300.0 5714.28571429
204050.0 195300.0 5714.28571429
204750.0 195300.0 5714.28571429
205450.0 195300.0 5714.28571429
206150.0 195300.0 5714.28571429
206850.0 195300.0 5714.28571429
207550.0 195300.0 5714.28571429
208250.0 195300.0 5714.28571429
208950.0 195300.0 5714.28571429
209650.0 195300.0 5714.28571429
210350.0 195300.0 5714.28571429
211050.0 195300.0 5714.28571429
211750.0 195300.0 5714.28571429
1856400.0 1897200.0 588.235294118
3348750.0 3933900.0 283.687943262
3751600.0 4631400.0 240.963855422
3768200.0 4631400.0 240.963855422
215250.0 195300.0 5714.28571429
185400.0 167400.0 6666.66666667
216650.0 195300.0 5714.28571429
-748650.0 -641700.0 -1739.13043478
218050.0 195300.0 5714.28571429
218750.0 195300.0 5714.28571429
219450.0 195300.0 5714.28571429
220150.0 195300.0 5714.28571429
220850.0 195300.0 5714.28571429
221550.0 195300.0 5714.28571429
222250.0 195300.0 5714.28571429
222950.0 195300.0 5714.28571429
223650.0 195300.0 5714.28571429
224350.0 195300.0 5714.28571429
225050.0 195300.0 5714.28571429
225750.0 195300.0 5714.28571429
97650.0 83700.0 0.0
259200.0 223200.0 5000.0
260000.0 223200.0 5000.0
260800.0 223200.0 5000.0
261600.0 223200.0 5000.0
262400.0 223200.0 5000.0
263200.0 223200.0 5000.0
264000.0 223200.0 5000.0
264800.0 223200.0 5000.0
265600.0 223200.0 5000.0
266400.0 223200.0 5000.0
267200.0 223200.0 5000.0
268000.0 223200.0 5000.0
268800.0 223200.0 5000.0
269600.0 223200.0 5000.0
270400.0 223200.0 5000.0
271200.0 223200.0 5000.0
272000.0 223200.0 5000.0
272800.0 223200.0 5000.0
273600.0 223200.0 5000.0
274400.0 223200.0 5000.0
275200.0 223200.0 5000.0
276000.0 223200.0 5000.0
276800.0 223200.0 5000.0
277600.0 223200.0 5000.0
278400.0 223200.0 5000.0
279200.0 223200.0 5000.0
280000.0 223200.0 5000.0
280800.0 223200.0 5000.0
281600.0 223200.0 5000.0
282400.0 223200.0 5000.0
318150.0 251100.0 4444.44444444
213600.0 167400.0 6666.66666667
214200.0 167400.0 6666.66666667
214800.0 167400.0 6666.66666667
215400.0 167400.0 6666.66666667
216000.0 167400.0 6666.66666667
216600.0 167400.0 6666.66666667
217200.0 167400.0 6666.66666667
217800.0 167400.0 6666.66666667
218400.0 167400.0 6666.66666667
219000.0 167400.0 6666.66666667
219600.0 167400.0 6666.66666667
220200.0 167400.0 6666.66666667
220800.0 167400.0 6666.66666667
221400.0 167400.0 6666.66666667
222000.0 167400.0 6666.66666667
222600.0 167400.0 6666.66666667
223200.0 167400.0 6666.66666667
0.0 0.0 0.0
0.0 0.0 0.0
0.0 0.0 0.0
0.0 0.0 0.0
0.0 0.0 0.0
0.0 0.0 0.0
0.0 0.0 0.0
0.0 0.0 0.0
0.0 0.0 0.0
0.0 0.0 0.0
0.0 0.0 0.0
0.0 0.0 0.0
0.0 0.0 0.0
0.0 0.0 0.0
-6053400.0 -9576000.0 -116.959064327
-6087600.0 -9576000.0 -116.959064327
-693000.0 -3080000.0 -363.636363636
-5277200.0 -8848000.0 -126.582278481
-1031800.0 -3752000.0 -298.507462687
2850.0 84000.0 0.0
4000.0 112000.0 10000.0
5250.0 140000.0 8000.0
5750.0 140000.0 8000.0
6250.0 140000.0 8000.0
6750.0 140000.0 8000.0
7250.0 140000.0 8000.0
7750.0 140000.0 8000.0
8250.0 140000.0 8000.0
8750.0 140000.0 8000.0
10800.0 168000.0 6666.66666667
9750.0 140000.0 8000.0
8400.0 112000.0 10000.0
12600.0 168000.0 6666.66666667
11250.0 140000.0 8000.0
11750.0 140000.0 8000.0
12250.0 140000.0 8000.0
12750.0 140000.0 8000.0
13250.0 140000.0 8000.0
13750.0 140000.0 8000.0
14250.0 140000.0 8000.0
14750.0 140000.0 8000.0
15250.0 140000.0 8000.0
15750.0 140000.0 8000.0
16250.0 140000.0 8000.0
16750.0 140000.0 8000.0
17250.0 140000.0 8000.0
17750.0 140000.0 8000.0
18250.0 140000.0 8000.0
18750.0 140000.0 8000.0
19250.0 140000.0 8000.0
19750.0 140000.0 8000.0
20250.0 140000.0 8000.0
20750.0 140000.0 8000.0
21250.0 140000.0 8000.0
21750.0 140000.0 8000.0
22250.0 140000.0 8000.0
22750.0 140000.0 8000.0
23250.0 140000.0 8000.0
23750.0 140000.0 8000.0
24250.0 140000.0 8000.0
24750.0 140000.0 8000.0
25250.0 140000.0 8000.0
25750.0 140000.0 8000.0
26250.0 140000.0 8000.0
26750.0 140000.0 8000.0
27250.0 140000.0 8000.0
27750.0 140000.0 8000.0
28250.0 140000.0 8000.0
28750.0 140000.0 8000.0
29250.0 140000.0 8000.0
29750.0 140000.0 8000.0
30250.0 140000.0 8000.0
-3885000.0 -6216000.0 -180.18018018
-3907200.0 -6216000.0 -180.18018018
-3929400.0 -6216000.0 -180.18018018
-3951600.0 -6216000.0 -180.18018018
-3973800.0 -6216000.0 -180.18018018
-3996000.0 -6216000.0 -180.18018018
-4018200.0 -6216000.0 -180.18018018
27600.0 112000.0 10000.0
73150.0 308000.0 3636.36363636
80400.0 336000.0 3333.33333333
81600.0 336000.0 3333.33333333
-249200.0 -784000.0 -1428.57142857
-252000.0 -784000.0 -1428.57142857
-254800.0 -784000.0 -1428.57142857
-257600.0 -784000.0 -1428.57142857
-260400.0 -784000.0 -1428.57142857
-263200.0 -784000.0 -1428.57142857
-266000.0 -784000.0 -1428.57142857
-268800.0 -784000.0 -1428.57142857
-271600.0 -784000.0 -1428.57142857
-274400.0 -784000.0 -1428.57142857
87450.0 308000.0 3636.36363636
96000.0 336000.0 3333.33333333
97200.0 336000.0 3333.33333333
98400.0 336000.0 3333.33333333
99600.0 336000.0 3333.33333333
100800.0 336000.0 3333.33333333
102000.0 336000.0 3333.33333333
103200.0 336000.0 3333.33333333
104400.0 336000.0 3333.33333333
105600.0 336000.0 3333.33333333
106800.0 336000.0 3333.33333333
108000.0 336000.0 3333.33333333
109200.0 336000.0 3333.33333333
110400.0 336000.0 3333.33333333
111600.0 336000.0 3333.33333333
112800.0 336000.0 3333.33333333
114000.0 336000.0 3333.33333333
115200.0 336000.0 3333.33333333
116400.0 336000.0 3333.33333333
117600.0 336000.0 3333.33333333
118800.0 336000.0 3333.33333333
120000.0 336000.0 3333.33333333
121200.0 336000.0 3333.33333333
122400.0 336000.0 3333.33333333
123600.0 336000.0 3333.33333333
114950.0 308000.0 3636.36363636
116050.0 308000.0 3636.36363636
117150.0 308000.0 3636.36363636
118250.0 308000.0 3636.36363636
119350.0 308000.0 3636.36363636
120450.0 308000.0 3636.36363636
121550.0 308000.0 3636.36363636
122650.0 308000.0 3636.36363636
123750.0 308000.0 3636.36363636
124850.0 308000.0 3636.36363636
125950.0 308000.0 3636.36363636
127050.0 308000.0 3636.36363636
128150.0 308000.0 3636.36363636
129250.0 308000.0 3636.36363636
130350.0 308000.0 3636.36363636
131450.0 308000.0 3636.36363636
132550.0 308000.0 3636.36363636
133650.0 308000.0 3636.36363636
134750.0 308000.0 3636.36363636
147600.0 336000.0 3333.33333333
136950.0 308000.0 3636.36363636
138050.0 308000.0 3636.36363636
139150.0 308000.0 3636.36363636
140250.0 308000.0 3636.36363636
141350.0 308000.0 3636.36363636
142450.0 308000.0 3636.36363636
143550.0 308000.0 3636.36363636
144650.0 308000.0 3636.36363636
145750.0 308000.0 3636.36363636
146850.0 308000.0 3636.36363636
147950.0 308000.0 3636.36363636
149050.0 308000.0 3636.36363636
150150.0 308000.0 3636.36363636
151250.0 308000.0 3636.36363636
152350.0 308000.0 3636.36363636
153450.0 308000.0 3636.36363636
154550.0 308000.0 3636.36363636
155650.0 308000.0 3636.36363636
156750.0 308000.0 3636.36363636
157850.0 308000.0 3636.36363636
158950.0 308000.0 3636.36363636
160050.0 308000.0 3636.36363636
161150.0 308000.0 3636.36363636
162250.0 308000.0 3636.36363636
163350.0 308000.0 3636.36363636
164450.0 308000.0 3636.36363636
165550.0 308000.0 3636.36363636
166650.0 308000.0 3636.36363636
167750.0 308000.0 3636.36363636
168850.0 308000.0 3636.36363636
169950.0 308000.0 3636.36363636
171050.0 308000.0 3636.36363636
172150.0 308000.0 3636.36363636
173250.0 308000.0 3636.36363636
174350.0 308000.0 3636.36363636
175450.0 308000.0 3636.36363636
176550.0 308000.0 3636.36363636
177650.0 308000.0 3636.36363636
178750.0 308000.0 3636.36363636
179850.0 308000.0 3636.36363636
180950.0 308000.0 3636.36363636
182050.0 308000.0 3636.36363636
183150.0 308000.0 3636.36363636
184250.0 308000.0 3636.36363636
185350.0 308000.0 3636.36363636
186450.0 308000.0 3636.36363636
187550.0 308000.0 3636.36363636
188650.0 308000.0 3636.36363636
189750.0 308000.0 3636.36363636
190850.0 308000.0 3636.36363636
191950.0 308000.0 3636.36363636
193050.0 308000.0 3636.36363636
194150.0 308000.0 3636.36363636
195250.0 308000.0 3636.36363636
196350.0 308000.0 3636.36363636
197450.0 308000.0 3636.36363636
198550.0 308000.0 3636.36363636
199650.0 308000.0 3636.36363636
200750.0 308000.0 3636.36363636
201850.0 308000.0 3636.36363636
202950.0 308000.0 3636.36363636
204050.0 308000.0 3636.36363636
205150.0 308000.0 3636.36363636
206250.0 308000.0 3636.36363636
207350.0 308000.0 3636.36363636
208450.0 308000.0 3636.36363636
228000.0 336000.0 3333.33333333
229200.0 336000.0 3333.33333333
230400.0 336000.0 3333.33333333
231600.0 336000.0 3333.33333333
232800.0 336000.0 3333.33333333
234000.0 336000.0 3333.33333333
235200.0 336000.0 3333.33333333
236400.0 336000.0 3333.33333333
237600.0 336000.0 3333.33333333
238800.0 336000.0 3333.33333333
220550.0 308000.0 3636.36363636
221650.0 308000.0 3636.36363636
222750.0 308000.0 3636.36363636
223850.0 308000.0 3636.36363636
224950.0 308000.0 3636.36363636
226050.0 308000.0 3636.36363636
227150.0 308000.0 3636.36363636
228250.0 308000.0 3636.36363636
229350.0 308000.0 3636.36363636
230450.0 308000.0 3636.36363636
231550.0 308000.0 3636.36363636
232650.0 308000.0 3636.36363636
233750.0 308000.0 3636.36363636
234850.0 308000.0 3636.36363636
108750.0 140000.0 8000.0
109250.0 140000.0 8000.0
109750.0 140000.0 8000.0
110250.0 140000.0 8000.0
110750.0 140000.0 8000.0
111250.0 140000.0 8000.0
111750.0 140000.0 8000.0
112250.0 140000.0 8000.0
112750.0 140000.0 8000.0
113250.0 140000.0 8000.0
113750.0 140000.0 8000.0
114250.0 140000.0 8000.0
114750.0 140000.0 8000.0
115250.0 140000.0 8000.0
115750.0 140000.0 8000.0
116250.0 140000.0 8000.0
116750.0 140000.0 8000.0
117250.0 140000.0 8000.0
117750.0 140000.0 8000.0
118250.0 140000.0 8000.0
118750.0 140000.0 8000.0
119250.0 140000.0 8000.0
119750.0 140000.0 8000.0
120250.0 140000.0 8000.0
-1523200.0 -1568000.0 -714.285714286
2587200.0 4312000.0 259.74025974
-3240000.0 -3024000.0 -370.37037037
2618000.0 4312000.0 259.74025974
2633400.0 4312000.0 259.74025974
2648800.0 4312000.0 259.74025974
2664200.0 4312000.0 259.74025974
2500250.0 3836000.0 291.97080292
124750.0 140000.0 8000.0
125250.0 140000.0 8000.0
125750.0 140000.0 8000.0
126250.0 140000.0 8000.0
126750.0 140000.0 8000.0
127250.0 140000.0 8000.0
127750.0 140000.0 8000.0
128250.0 140000.0 8000.0
128750.0 140000.0 8000.0
129250.0 140000.0 8000.0
129750.0 140000.0 8000.0
130250.0 140000.0 8000.0
130750.0 140000.0 8000.0
131250.0 140000.0 8000.0
131750.0 140000.0 8000.0
132250.0 140000.0 8000.0
132750.0 140000.0 8000.0
133250.0 140000.0 8000.0
133750.0 140000.0 8000.0
134250.0 140000.0 8000.0
134750.0 140000.0 8000.0
135250.0 140000.0 8000.0
135750.0 140000.0 8000.0
136250.0 140000.0 8000.0
136750.0 140000.0 8000.0
137250.0 140000.0 8000.0
137750.0 140000.0 8000.0
138250.0 140000.0 8000.0
138750.0 140000.0 8000.0
139250.0 140000.0 8000.0
139750.0 140000.0 8000.0
140250.0 140000.0 8000.0
140750.0 140000.0 8000.0
141250.0 140000.0 8000.0
141750.0 140000.0 8000.0
142250.0 140000.0 8000.0
171000.0 168000.0 6666.66666667
171600.0 168000.0 6666.66666667
172200.0 168000.0 6666.66666667
172800.0 168000.0 6666.66666667
201950.0 196000.0 5714.28571429
202650.0 196000.0 5714.28571429
203350.0 196000.0 5714.28571429
204050.0 196000.0 5714.28571429
204750.0 196000.0 5714.28571429
205450.0 196000.0 5714.28571429
206150.0 196000.0 5714.28571429
206850.0 196000.0 5714.28571429
207550.0 196000.0 5714.28571429
208250.0 196000.0 5714.28571429
208950.0 196000.0 5714.28571429
209650.0 196000.0 5714.28571429
210350.0 196000.0 5714.28571429
211050.0 196000.0 5714.28571429
211750.0 196000.0 5714.28571429
212450.0 196000.0 5714.28571429
4320000.0 6048000.0 185.185185185
4341600.0 6048000.0 185.185185185
4381800.0 6104000.0 183.486238532
215250.0 196000.0 5714.28571429
215950.0 196000.0 5714.28571429
216650.0 196000.0 5714.28571429
2989350.0 3276000.0 341.88034188
218050.0 196000.0 5714.28571429
218750.0 196000.0 5714.28571429
219450.0 196000.0 5714.28571429
220150.0 196000.0 5714.28571429
220850.0 196000.0 5714.28571429
221550.0 196000.0 5714.28571429
222250.0 196000.0 5714.28571429
222950.0 196000.0 5714.28571429
223650.0 196000.0 5714.28571429
224350.0 196000.0 5714.28571429
225050.0 196000.0 5714.28571429
225750.0 196000.0 5714.28571429
226450.0 196000.0 5714.28571429
259200.0 224000.0 5000.0
260000.0 224000.0 5000.0
260800.0 224000.0 5000.0
261600.0 224000.0 5000.0
262400.0 224000.0 5000.0
263200.0 224000.0 5000.0
264000.0 224000.0 5000.0
264800.0 224000.0 5000.0
265600.0 224000.0 5000.0
266400.0 224000.0 5000.0
267200.0 224000.0 5000.0
268000.0 224000.0 5000.0
268800.0 224000.0 5000.0
269600.0 224000.0 5000.0
270400.0 224000.0 5000.0
271200.0 224000.0 5000.0
272000.0 224000.0 5000.0
272800.0 224000.0 5000.0
273600.0 224000.0 5000.0
274400.0 224000.0 5000.0
275200.0 224000.0 5000.0
276000.0 224000.0 5000.0
276800.0 224000.0 5000.0
277600.0 224000.0 5000.0
278400.0 224000.0 5000.0
279200.0 224000.0 5000.0
280000.0 224000.0 5000.0
280800.0 224000.0 5000.0
281600.0 224000.0 5000.0
282400.0 224000.0 5000.0
4733750.0 4900000.0 228.571428571
213600.0 168000.0 6666.66666667
214200.0 168000.0 6666.66666667
214800.0 168000.0 6666.66666667
215400.0 168000.0 6666.66666667
216000.0 168000.0 6666.66666667
216600.0 168000.0 6666.66666667
217200.0 168000.0 6666.66666667
217800.0 168000.0 6666.66666667
218400.0 168000.0 6666.66666667
219000.0 168000.0 6666.66666667
219600.0 168000.0 6666.66666667
220200.0 168000.0 6666.66666667
220800.0 168000.0 6666.66666667
221400.0 168000.0 6666.66666667
222000.0 168000.0 6666.66666667
222600.0 168000.0 6666.66666667
223200.0 168000.0 6666.66666667
0.0 0.0 0.0
0.0 0.0 0.0
0.0 0.0 0.0
0.0 0.0 0.0
0.0 0.0 0.0
0.0 0.0 0.0
0.0 0.0 0.0
0.0 0.0 0.0
0.0 0.0 0.0
0.0 0.0 0.0
0.0 0.0 0.0
0.0 0.0 0.0
0.0 0.0 0.0
0.0 0.0 0.0
0.0 0.0 0.0
-6087600.0 -9610200.0 -116.959064327
-681250.0 -3062900.0 -366.972477064
-5277200.0 -8879600.0 -126.582278481
-5308800.0 -8879600.0 -126.582278481
-5307750.0 -8851500.0 -126.984126984
4000.0 112400.0 10000.0
5250.0 140500.0 8000.0
5750.0 140500.0 8000.0
6250.0 140500.0 8000.0
6750.0 140500.0 8000.0
7250.0 140500.0 8000.0
7750.0 140500.0 8000.0
8250.0 140500.0 8000.0
8750.0 140500.0 8000.0
10800.0 168600.0 6666.66666667
9750.0 140500.0 8000.0
8400.0 112400.0 10000.0
10750.0 140500.0 8000.0
11250.0 140500.0 8000.0
11750.0 140500.0 8000.0
12250.0 140500.0 8000.0
12750.0 140500.0 8000.0
13250.0 140500.0 8000.0
13750.0 140500.0 8000.0
14250.0 140500.0 8000.0
14750.0 140500.0 8000.0
15250.0 140500.0 8000.0
15750.0 140500.0 8000.0
16250.0 140500.0 8000.0
16750.0 140500.0 8000.0
17250.0 140500.0 8000.0
17750.0 140500.0 8000.0
18250.0 140500.0 8000.0
18750.0 140500.0 8000.0
19250.0 140500.0 8000.0
19750.0 140500.0 8000.0
20250.0 140500.0 8000.0
20750.0 140500.0 8000.0
21250.0 140500.0 8000.0
21750.0 140500.0 8000.0
22250.0 140500.0 8000.0
22750.0 140500.0 8000.0
23250.0 140500.0 8000.0
23750.0 140500.0 8000.0
24250.0 140500.0 8000.0
24750.0 140500.0 8000.0
25250.0 140500.0 8000.0
25750.0 140500.0 8000.0
26250.0 140500.0 8000.0
26750.0 140500.0 8000.0
27250.0 140500.0 8000.0
27750.0 140500.0 8000.0
28250.0 140500.0 8000.0
28750.0 140500.0 8000.0
29250.0 140500.0 8000.0
29750.0 140500.0 8000.0
30250.0 140500.0 8000.0
-3885000.0 -6238200.0 -180.18018018
-3907200.0 -6238200.0 -180.18018018
-3929400.0 -6238200.0 -180.18018018
-3951600.0 -6238200.0 -180.18018018
-3973800.0 -6238200.0 -180.18018018
-3996000.0 -6238200.0 -180.18018018
-4018200.0 -6238200.0 -180.18018018
27600.0 112400.0 10000.0
73150.0 309100.0 3636.36363636
80400.0 337200.0 3333.33333333
81600.0 337200.0 3333.33333333
-249200.0 -786800.0 -1428.57142857
-252000.0 -786800.0 -1428.57142857
-254800.0 -786800.0 -1428.57142857
-257600.0 -786800.0 -1428.57142857
-260400.0 -786800.0 -1428.57142857
-263200.0 -786800.0 -1428.57142857
-266000.0 -786800.0 -1428.57142857
84150.0 309100.0 3636.36363636
85250.0 309100.0 3636.36363636
-274400.0 -786800.0 -1428.57142857
87450.0 309100.0 3636.36363636
96000.0 337200.0 3333.33333333
97200.0 337200.0 3333.33333333
98400.0 337200.0 3333.33333333
99600.0 337200.0 3333.33333333
100800.0 337200.0 3333.33333333
102000.0 337200.0 3333.33333333
103200.0 337200.0 3333.33333333
104400.0 337200.0 3333.33333333
105600.0 337200.0 3333.33333333
106800.0 337200.0 3333.33333333
108000.0 337200.0 3333.33333333
109200.0 337200.0 3333.33333333
110400.0 337200.0 3333.33333333
111600.0 337200.0 3333.33333333
112800.0 337200.0 3333.33333333
114000.0 337200.0 3333.33333333
115200.0 337200.0 3333.33333333
116400.0 337200.0 3333.33333333
117600.0 337200.0 3333.33333333
118800.0 337200.0 3333.33333333
120000.0 337200.0 3333.33333333
121200.0 337200.0 3333.33333333
122400.0 337200.0 3333.33333333
123600.0 337200.0 3333.33333333
114950.0 309100.0 3636.36363636
116050.0 309100.0 3636.36363636
117150.0 309100.0 3636.36363636
118250.0 309100.0 3636.36363636
119350.0 309100.0 3636.36363636
120450.0 309100.0 3636.36363636
121550.0 309100.0 3636.36363636
122650.0 309100.0 3636.36363636
123750.0 309100.0 3636.36363636
124850.0 309100.0 3636.36363636
125950.0 309100.0 3636.36363636
127050.0 309100.0 3636.36363636
128150.0 309100.0 3636.36363636
129250.0 309100.0 3636.36363636
130350.0 309100.0 3636.36363636
131450.0 309100.0 3636.36363636
132550.0 309100.0 3636.36363636
133650.0 309100.0 3636.36363636
134750.0 309100.0 3636.36363636
147600.0 337200.0 3333.33333333
136950.0 309100.0 3636.36363636
138050.0 309100.0 3636.36363636
139150.0 309100.0 3636.36363636
140250.0 309100.0 3636.36363636
141350.0 309100.0 3636.36363636
142450.0 309100.0 3636.36363636
143550.0 309100.0 3636.36363636
144650.0 309100.0 3636.36363636
145750.0 309100.0 3636.36363636
146850.0 309100.0 3636.36363636
147950.0 309100.0 3636.36363636
149050.0 309100.0 3636.36363636
150150.0 309100.0 3636.36363636
151250.0 309100.0 3636.36363636
152350.0 309100.0 3636.36363636
153450.0 309100.0 3636.36363636
154550.0 309100.0 3636.36363636
155650.0 309100.0 3636.36363636
156750.0 309100.0 3636.36363636
157850.0 309100.0 3636.36363636
158950.0 309100.0 3636.36363636
160050.0 309100.0 3636.36363636
161150.0 309100.0 3636.36363636
162250.0 309100.0 3636.36363636
163350.0 309100.0 3636.36363636
164450.0 309100.0 3636.36363636
165550.0 309100.0 3636.36363636
166650.0 309100.0 3636.36363636
167750.0 309100.0 3636.36363636
168850.0 309100.0 3636.36363636
169950.0 309100.0 3636.36363636
171050.0 309100.0 3636.36363636
172150.0 309100.0 3636.36363636
173250.0 309100.0 3636.36363636
174350.0 309100.0 3636.36363636
175450.0 309100.0 3636.36363636
176550.0 309100.0 3636.36363636
177650.0 309100.0 3636.36363636
178750.0 309100.0 3636.36363636
179850.0 309100.0 3636.36363636
180950.0 309100.0 3636.36363636
182050.0 309100.0 3636.36363636
183150.0 309100.0 3636.36363636
184250.0 309100.0 3636.36363636
185350.0 309100.0 3636.36363636
186450.0 309100.0 3636.36363636
187550.0 309100.0 3636.36363636
188650.0 309100.0 3636.36363636
189750.0 309100.0 3636.36363636
190850.0 309100.0 3636.36363636
191950.0 309100.0 3636.36363636
193050.0 309100.0 3636.36363636
194150.0 309100.0 3636.36363636
195250.0 309100.0 3636.36363636
196350.0 309100.0 3636.36363636
197450.0 309100.0 3636.36363636
198550.0 309100.0 3636.36363636
199650.0 309100.0 3636.36363636
200750.0 309100.0 3636.36363636
201850.0 309100.0 3636.36363636
202950.0 309100.0 3636.36363636
204050.0 309100.0 3636.36363636
205150.0 309100.0 3636.36363636
206250.0 309100.0 3636.36363636
207350.0 309100.0 3636.36363636
208450.0 309100.0 3636.36363636
228000.0 337200.0 3333.33333333
229200.0 337200.0 3333.33333333
230400.0 337200.0 3333.33333333
231600.0 337200.0 3333.33333333
232800.0 337200.0 3333.33333333
234000.0 337200.0 3333.33333333
235200.0 337200.0 3333.33333333
236400.0 337200.0 3333.33333333
237600.0 337200.0 3333.33333333
238800.0 337200.0 3333.33333333
220550.0 309100.0 3636.36363636
221650.0 309100.0 3636.36363636
222750.0 309100.0 3636.36363636
223850.0 309100.0 3636.36363636
224950.0 309100.0 3636.36363636
226050.0 309100.0 3636.36363636
227150.0 309100.0 3636.36363636
228250.0 309100.0 3636.36363636
229350.0 309100.0 3636.36363636
230450.0 309100.0 3636.36363636
231550.0 309100.0 3636.36363636
232650.0 309100.0 3636.36363636
233750.0 309100.0 3636.36363636
234850.0 309100.0 3636.36363636
108750.0 140500.0 8000.0
109250.0 140500.0 8000.0
109750.0 140500.0 8000.0
110250.0 140500.0 8000.0
110750.0 140500.0 8000.0
111250.0 140500.0 8000.0
111750.0 140500.0 8000.0
112250.0 140500.0 8000.0
112750.0 140500.0 8000.0
113250.0 140500.0 8000.0
113750.0 140500.0 8000.0
114250.0 140500.0 8000.0
114750.0 140500.0 8000.0
115250.0 140500.0 8000.0
115750.0 140500.0 8000.0
116250.0 140500.0 8000.0
116750.0 140500.0 8000.0
117250.0 140500.0 8000.0
117750.0 140500.0 8000.0
118250.0 140500.0 8000.0
118750.0 140500.0 8000.0
119250.0 140500.0 8000.0
119750.0 140500.0 8000.0
120250.0 140500.0 8000.0
-1523200.0 -1573600.0 -714.285714286
-3229200.0 -3034800.0 -370.37037037
-3240000.0 -3034800.0 -370.37037037
2618000.0 4327400.0 259.74025974
2633400.0 4327400.0 259.74025974
2648800.0 4327400.0 259.74025974
2664200.0 4327400.0 259.74025974
2500250.0 3849700.0 291.97080292
124750.0 140500.0 8000.0
125250.0 140500.0 8000.0
125750.0 140500.0 8000.0
126250.0 140500.0 8000.0
126750.0 140500.0 8000.0
127250.0 140500.0 8000.0
127750.0 140500.0 8000.0
128250.0 140500.0 8000.0
128750.0 140500.0 8000.0
129250.0 140500.0 8000.0
129750.0 140500.0 8000.0
130250.0 140500.0 8000.0
130750.0 140500.0 8000.0
131250.0 140500.0 8000.0
131750.0 140500.0 8000.0
132250.0 140500.0 8000.0
132750.0 140500.0 8000.0
133250.0 140500.0 8000.0
133750.0 140500.0 8000.0
134250.0 140500.0 8000.0
134750.0 140500.0 8000.0
135250.0 140500.0 8000.0
135750.0 140500.0 8000.0
136250.0 140500.0 8000.0
136750.0 140500.0 8000.0
137250.0 140500.0 8000.0
137750.0 140500.0 8000.0
138250.0 140500.0 8000.0
138750.0 140500.0 8000.0
139250.0 140500.0 8000.0
139750.0 140500.0 8000.0
140250.0 140500.0 8000.0
140750.0 140500.0 8000.0
141250.0 140500.0 8000.0
141750.0 140500.0 8000.0
142250.0 140500.0 8000.0
171000.0 168600.0 6666.66666667
171600.0 168600.0 6666.66666667
172200.0 168600.0 6666.66666667
172800.0 168600.0 6666.66666667
201950.0 196700.0 5714.28571429
202650.0 196700.0 5714.28571429
203350.0 196700.0 5714.28571429
204050.0 196700.0 5714.28571429
204750.0 196700.0 5714.28571429
205450.0 196700.0 5714.28571429
206150.0 196700.0 5714.28571429
206850.0 196700.0 5714.28571429
207550.0 196700.0 5714.28571429
208250.0 196700.0 5714.28571429
208950.0 196700.0 5714.28571429
209650.0 196700.0 5714.28571429
210350.0 196700.0 5714.28571429
211050.0 196700.0 5714.28571429
211750.0 196700.0 5714.28571429
212450.0 196700.0 5714.28571429
4320000.0 6069600.0 185.185185185
4341600.0 6069600.0 185.185185185
4381800.0 6125800.0 183.486238532
4403600.0 6125800.0 183.486238532
215950.0 196700.0 5714.28571429
216650.0 196700.0 5714.28571429
2989350.0 3287700.0 341.88034188
218050.0 196700.0 5714.28571429
218750.0 196700.0 5714.28571429
219450.0 196700.0 5714.28571429
220150.0 196700.0 5714.28571429
220850.0 196700.0 5714.28571429
221550.0 196700.0 5714.28571429
222250.0 196700.0 5714.28571429
222950.0 196700.0 5714.28571429
223650.0 196700.0 5714.28571429
224350.0 196700.0 5714.28571429
225050.0 196700.0 5714.28571429
225750.0 196700.0 5714.28571429
226450.0 196700.0 5714.28571429
259200.0 224800.0 5000.0
260000.0 224800.0 5000.0
260800.0 224800.0 5000.0
261600.0 224800.0 5000.0
262400.0 224800.0 5000.0
263200.0 224800.0 5000.0
264000.0 224800.0 5000.0
264800.0 224800.0 5000.0
265600.0 224800.0 5000.0
266400.0 224800.0 5000.0
267200.0 224800.0 5000.0
268000.0 224800.0 5000.0
268800.0 224800.0 5000.0
269600.0 224800.0 5000.0
270400.0 224800.0 5000.0
271200.0 224800.0 5000.0
272000.0 224800.0 5000.0
272800.0 224800.0 5000.0
273600.0 224800.0 5000.0
274400.0 224800.0 5000.0
275200.0 224800.0 5000.0
276000.0 224800.0 5000.0
276800.0 224800.0 5000.0
277600.0 224800.0 5000.0
278400.0 224800.0 5000.0
279200.0 224800.0 5000.0
280000.0 224800.0 5000.0
280800.0 224800.0 5000.0
281600.0 224800.0 5000.0
282400.0 224800.0 5000.0
4733750.0 4917500.0 228.571428571
213600.0 168600.0 6666.66666667
214200.0 168600.0 6666.66666667
214800.0 168600.0 6666.66666667
215400.0 168600.0 6666.66666667
216000.0 168600.0 6666.66666667
216600.0 168600.0 6666.66666667
217200.0 168600.0 6666.66666667
217800.0 168600.0 6666.66666667
218400.0 168600.0 6666.66666667
219000.0 168600.0 6666.66666667
